537.533081 -212.649399 196.676407 
538.712891 -212.183701 198.899902 
540.482300 -214.023407 202.794601 
535.639709 -210.553299 192.990799 
536.875488 -210.031097 195.278793 
537.310791 -212.707993 196.774002 
538.453003 -212.435303 198.962204 
539.419617 -212.948898 200.966507 
540.267883 -214.055603 202.903702 
535.383728 -210.740601 193.043396 
536.555420 -210.497604 195.265594 
537.115601 -212.649704 196.897400 
538.234009 -212.491806 199.061905 
539.248108 -212.774994 201.104401 
540.066528 -214.016602 203.021805 
540.794800 -215.948196 204.930801 
536.435974 -210.170898 195.455200 
536.623413 -213.830902 196.749603 
537.605896 -214.384094 198.822601 
539.073730 -212.619797 201.238800 
539.879211 -213.902603 203.148605 
540.619629 -215.726593 205.067001 
536.234375 -210.167099 195.562103 
535.745300 -216.565903 196.268906 
537.176514 -215.340698 198.761093 
538.237793 -215.584900 200.910400 
539.670288 -213.904907 203.261398 
540.804626 -213.462906 205.375793 
541.419312 -215.654404 207.341003 
535.966614 -210.375504 195.620804 
535.885193 -215.051895 196.717300 
536.945496 -215.403107 198.865097 
538.613586 -212.797607 201.439102 
540.625305 -213.315308 205.500702 
541.210022 -215.578293 207.466904 
536.790222 -210.560303 197.790100 
537.096985 -213.772598 199.278702 
538.429871 -212.690308 201.565903 
539.147888 -214.379303 203.439301 
540.441223 -213.198502 205.622604 
540.964478 -215.847107 207.565399 
536.577087 -210.640701 197.875107 
536.867676 -213.890793 199.365204 
538.208679 -212.756393 201.667297 
539.128174 -213.485901 203.648300 
540.222900 -213.269104 205.729507 
541.088623 -213.872101 207.775803 
536.540894 -214.369095 199.393906 
538.012024 -212.709396 201.785400 
538.934082 -213.418793 203.768402 
540.015198 -213.279999 205.841293 
541.013916 -213.114700 207.924103 
541.748108 -215.001907 209.912094 
536.526794 -213.542892 199.651596 
537.807678 -212.696503 201.898300 
538.718872 -213.403900 203.888000 
539.781189 -213.427094 205.942795 
540.781189 -213.221298 208.037598 
541.533203 -214.979507 210.034195 
536.307373 -213.531097 199.771301 
537.500183 -213.134705 201.948395 
538.522217 -213.350693 204.006393 
539.587524 -213.309402 206.070007 
541.311707 -215.060501 210.149994 
536.102905 -213.500793 199.888794 
537.159302 -213.703094 201.982498 
539.395386 -213.237503 206.188293 
539.885376 -215.880203 208.158005 
541.130920 -214.893906 210.268600 
536.923889 -213.806793 202.081497 
538.365601 -212.161102 204.354706 
539.176270 -213.301697 206.296799 
540.824585 -215.470001 210.381805 
538.145691 -212.230392 204.458603 
538.522705 -215.482101 206.259796 
539.877014 -213.675903 208.474899 
540.598389 -215.622604 210.493805 
536.166382 -215.187500 202.125900 
537.928772 -212.283295 204.564407 
538.318909 -215.484604 206.371796 
539.685486 -213.651505 208.585098 
540.372803 -215.705597 210.612396 
536.004517 -214.963898 202.271103 
537.406616 -213.717300 204.530396 
539.436584 -213.867798 208.692795 
540.176697 -215.620300 210.731400 
537.185974 -213.761902 204.640305 
538.327881 -213.445908 206.736603 
539.229309 -213.867401 208.808197 
539.960327 -215.648300 210.850403 
540.926025 -216.332306 212.957901 
537.222595 -212.663605 204.863007 
538.061523 -213.714401 206.834305 
540.686096 -216.496902 213.084595 
537.003479 -212.712799 204.970703 
537.782410 -213.983704 206.938095 
538.468506 -215.495193 209.000107 
539.528381 -215.636795 211.094604 
540.392395 -216.965698 213.223007 
536.835510 -212.548096 205.098297 
537.114502 -216.022705 206.934799 
537.163086 -220.720505 208.985504 
539.258301 -215.938995 211.216095 
540.799316 -213.433304 213.212601 
536.616821 -212.593597 205.206604 
537.044128 -215.379196 207.090302 
538.061584 -215.400208 209.240204 
539.572998 -213.240906 211.314804 
540.538818 -213.752106 213.341705 
537.944519 -214.952698 209.369003 
539.413208 -213.014801 211.428497 
540.397827 -213.403305 213.444595 
537.140991 -213.127197 207.445908 
538.689026 -215.587402 211.574097 
540.204224 -213.348694 213.559296 
536.924316 -213.162292 207.558594 
538.983093 -213.119202 211.661102 
540.059814 -213.034195 213.662201 
536.681091 -213.305298 207.666397 
538.936707 -212.358597 211.765793 
539.803589 -213.311798 213.791901 
536.698608 -212.375793 207.825500 
538.754028 -212.263306 211.879105 
539.601074 -213.303802 213.909195 
536.480774 -212.420395 207.937103 
537.043213 -214.249893 209.972000 
538.446228 -212.751801 212.003403 
539.495728 -212.805206 214.001694 
538.236389 -212.775803 212.119995 
538.758972 -215.454895 214.257599 
536.956421 -212.839493 210.221207 
538.025024 -212.804794 212.237305 
536.574097 -213.563293 210.331802 
537.606812 -213.751602 212.377106 
536.491394 -213.041901 210.452194 
537.311279 -214.130798 212.505707 
538.012085 -215.978607 214.655502 
539.387207 -214.603806 216.632004 
537.953918 -215.248795 214.735703 
538.993408 -214.490402 216.866302 
537.709595 -214.429398 214.929703 
537.494324 -214.451599 215.052994 
538.487122 -214.921707 217.154099 
538.323425 -214.701004 217.256393 
543.944702 -219.928207 195.027298 
544.188110 -212.875397 197.013702 
544.002930 -212.927200 197.138306 
543.959473 -211.851898 197.501907 
543.763977 -211.935303 197.624100 
544.060425 -221.468597 197.773697 
543.579895 -211.994293 197.745102 
543.834106 -221.583496 197.914093 
543.373596 -212.149704 197.852707 
543.173401 -212.381897 197.932602 
543.373108 -222.041199 198.141693 
542.971680 -212.489197 198.051102 
543.361206 -220.418503 198.573593 
542.974121 -211.228104 198.435699 
543.096130 -219.245697 199.077393 
542.543396 -211.714203 198.609100 
543.712830 -212.807602 200.291397 
542.383118 -211.608398 198.761093 
543.571777 -212.512802 200.473404 
542.046570 -212.643997 198.695404 
542.036499 -211.571304 199.030701 
543.110779 -213.336395 200.603104 
541.758301 -212.261703 199.026901 
543.019226 -212.692795 200.838303 
541.531799 -212.502106 199.121307 
542.781189 -213.040604 200.924606 
540.989929 -214.629196 198.873703 
542.639526 -212.710205 201.115005 
540.796326 -214.677704 199.002106 
542.593872 -211.804001 201.383606 
542.686218 -221.311996 202.074600 
540.617126 -214.639999 199.145798 
542.242615 -212.955795 201.345001 
542.669678 -219.866104 202.396606 
540.419800 -214.706207 199.270996 
541.964294 -212.423401 201.688004 
542.205505 -220.332504 202.640106 
540.021912 -214.847900 199.520401 
542.109070 -219.569794 202.874405 
542.830322 -213.055801 203.735107 
542.680908 -212.770599 203.905701 
541.010986 -213.762100 202.042206 
542.491394 -212.829697 204.032501 
540.845520 -213.653793 202.191299 
542.347107 -212.585007 204.190704 
540.666992 -213.622894 202.329697 
540.477905 -213.651794 202.460205 
538.531982 -215.690506 200.351395 
540.267578 -213.797104 202.576202 
538.952026 -212.694397 200.951706 
540.129211 -213.543106 202.742096 
538.753906 -212.727905 201.084503 
539.886780 -213.806793 202.850204 
538.589417 -212.599701 201.241592 
539.660706 -214.023605 202.958496 
538.438904 -212.450394 201.394897 
539.419800 -214.261993 203.071701 
540.036682 -218.593597 204.600601 
538.206970 -212.681702 201.492004 
539.476196 -213.057693 203.339905 
540.643005 -213.950806 205.144897 
538.099304 -212.378998 201.660706 
539.304077 -212.999100 203.479095 
540.618530 -213.035507 205.356796 
537.844177 -212.667496 201.756607 
539.103088 -213.039993 203.613403 
540.406616 -213.143295 205.487503 
537.555481 -213.096100 201.834198 
538.381897 -215.636795 203.468597 
539.308289 -218.158997 205.221497 
537.283386 -213.480194 201.913498 
538.654480 -213.385193 203.847702 
539.127930 -218.060394 205.373199 
541.364014 -213.044098 207.623901 
537.031311 -213.766602 202.007507 
538.190430 -214.717606 203.840897 
538.657410 -219.505600 205.407898 
541.182312 -213.032593 207.758301 
536.286987 -216.113495 201.834702 
538.535095 -212.197693 204.236404 
539.668274 -213.102005 206.030304 
540.985596 -213.054398 207.897598 
536.262878 -215.393005 202.067093 
538.341919 -212.205307 204.372406 
539.343994 -213.821503 206.112503 
540.763489 -213.273499 208.022293 
541.781799 -215.120804 209.852997 
536.177185 -214.946304 202.261307 
538.146790 -212.261993 204.497406 
538.795715 -215.655594 206.120697 
540.124695 -215.847504 208.054993 
541.591614 -215.123505 209.992096 
538.632080 -215.510696 206.268997 
539.927612 -215.872803 208.193893 
541.414429 -215.042404 210.131897 
537.449585 -213.739105 204.619400 
538.432007 -215.548904 206.404999 
540.169983 -213.482407 208.418198 
541.211487 -215.122406 210.270493 
537.489197 -212.735901 204.845795 
539.980713 -213.499207 208.552597 
540.947327 -215.570496 210.408005 
537.316711 -212.680298 204.982605 
538.438599 -213.623901 206.804794 
539.759705 -213.633499 208.690002 
540.729980 -215.721497 210.548004 
536.666504 -214.636902 204.947998 
538.212708 -213.804993 206.928604 
539.525085 -213.882095 208.818100 
540.507812 -215.838303 210.695496 
536.942505 -212.654404 205.254196 
537.977173 -214.024094 207.051193 
539.307983 -214.031601 208.949997 
540.299011 -215.928101 210.836700 
536.822388 -212.379303 205.408707 
537.293701 -216.295197 207.063507 
538.827026 -215.516006 209.049805 
540.135498 -215.757004 210.977203 
537.283813 -215.449997 207.247604 
538.629028 -215.539200 209.188705 
539.927002 -215.841095 211.118896 
537.573181 -213.287003 207.494095 
540.191895 -213.323105 211.237595 
540.924194 -216.820297 213.222305 
537.372925 -213.300201 207.633606 
538.368103 -214.876205 209.486694 
539.996094 -213.371307 211.374100 
540.713684 -216.906006 213.370407 
537.159119 -213.411499 207.762405 
538.124512 -215.122192 209.621002 
539.784302 -213.452194 211.517807 
539.606506 -213.400406 211.653503 
536.942322 -212.726898 208.059296 
538.240601 -212.779602 209.926407 
539.339783 -213.807098 211.796997 
536.776123 -212.637604 208.195602 
538.868713 -215.236603 211.962601 
540.560913 -213.300293 213.774506 
537.959290 -212.358902 210.197800 
538.641296 -215.404694 212.106903 
537.751892 -212.412201 210.337204 
538.530579 -214.991806 212.238007 
539.787476 -215.432404 214.169800 
537.523193 -212.597107 210.470200 
538.512329 -214.094696 212.361298 
539.481689 -215.981506 214.349594 
537.238770 -212.977798 210.610199 
538.341125 -213.953201 212.502304 
536.911194 -213.532196 210.752197 
538.138123 -214.008606 212.642395 
538.999817 -215.430405 214.747299 
536.190430 -215.030106 211.019897 
537.843201 -213.646301 212.900208 
538.871399 -215.091400 214.868607 
536.048706 -214.764893 211.164093 
537.708496 -213.390900 213.028793 
535.802490 -214.971497 211.305206 
537.270203 -214.453094 213.214706 
538.483521 -215.035599 215.156799 
535.646790 -214.766800 211.449203 
537.885803 -215.043900 215.592697 
530.636719 -223.725098 188.686401 
534.255615 -216.109406 200.417206 
530.934326 -223.600906 188.678696 
534.510376 -215.860306 200.412704 
534.785095 -215.429001 200.431503 
531.935303 -220.544693 189.424103 
535.025085 -215.463806 200.387100 
533.899780 -220.507294 197.215103 
535.411377 -214.196396 200.508606 
534.942871 -214.019104 198.226395 
535.673218 -213.789505 200.526596 
535.175476 -213.909302 198.210297 
534.582520 -214.645294 195.735992 
535.912903 -213.563202 200.521896 
535.415405 -213.728104 198.206406 
534.894775 -214.015198 195.825195 
534.374329 -214.121597 193.432404 
536.182373 -213.242905 200.525101 
535.663513 -213.661499 198.179306 
535.548584 -210.516602 196.485901 
534.944092 -211.545395 194.001999 
536.129272 -216.178894 200.107605 
535.882507 -213.864899 198.108002 
535.822876 -210.048996 196.545807 
535.231384 -211.147202 194.059906 
535.961304 -215.347000 197.827896 
536.039917 -210.169907 196.486099 
535.610291 -209.939697 194.310196 
536.541077 -216.936600 199.932999 
536.409302 -213.298706 198.128998 
536.235596 -210.398605 196.406799 
535.827087 -209.987198 194.265900 
537.188782 -212.262695 200.509094 
536.628113 -213.278397 198.099792 
536.467407 -210.291199 196.395401 
536.014099 -210.211395 194.181702 
537.390625 -212.363205 200.463898 
536.835022 -213.505493 198.027206 
536.448425 -212.603806 195.896500 
536.259888 -209.998306 194.199707 
537.624084 -212.345596 200.430099 
536.890015 -215.477005 197.662903 
536.681885 -212.665695 195.847595 
536.469482 -210.226105 194.110397 
537.848206 -212.306900 200.401505 
537.399719 -212.358200 198.148605 
536.835693 -213.483704 195.647202 
536.205688 -215.157303 192.895905 
538.070190 -212.295197 200.369598 
537.642822 -212.124893 198.154205 
536.901428 -215.367203 195.228699 
536.921326 -210.163605 194.060104 
537.860718 -212.197495 198.108704 
537.138306 -215.379898 195.190796 
537.055420 -211.130600 193.794907 
537.647278 -212.030502 195.842697 
537.326294 -210.619095 193.885300 
537.517578 -216.784393 194.830002 
537.552612 -210.721207 193.825897 
538.786194 -215.272003 199.832306 
538.485229 -212.886902 197.891693 
537.828430 -215.860992 194.984695 
537.763916 -210.750198 193.788605 
539.009521 -215.212997 199.808304 
538.711670 -212.879898 197.859894 
538.050293 -215.948303 194.934006 
538.903625 -213.446701 197.729599 
538.098816 -218.822098 194.304092 
539.811584 -213.076904 199.998093 
539.053101 -219.256897 196.661102 
538.298889 -216.405502 192.275497 
540.032104 -213.145599 199.956299 
539.308716 -219.349899 196.606903 
538.922302 -217.722504 194.423004 
538.960571 -209.724396 193.876602 
540.246582 -213.383698 199.891205 
539.556213 -219.371002 196.567505 
539.186890 -217.368500 194.462006 
539.189026 -209.590103 193.878098 
540.461304 -213.656799 199.821106 
540.112000 -212.056000 197.805206 
539.403870 -209.685806 193.823395 
540.329285 -211.925400 197.798401 
539.618774 -209.584900 193.819107 
540.550293 -211.963394 197.760193 
541.165405 -212.562897 199.878693 
540.754578 -212.540100 197.627502 
540.387024 -211.551407 195.551804 
539.432922 -223.928299 190.206100 
541.399902 -211.977600 199.929901 
540.992981 -212.442795 197.611206 
540.617004 -211.378693 195.556793 
540.182312 -212.214401 193.072205 
541.619995 -211.953903 199.902603 
541.247620 -211.198700 197.799393 
540.800110 -212.691498 195.246994 
540.419189 -212.017395 193.088898 
541.834290 -212.325394 199.819504 
541.457397 -211.686493 197.682404 
541.031311 -212.581894 195.238495 
542.040222 -213.650604 199.600494 
541.678284 -211.734604 197.643204 
541.263184 -212.406906 195.244095 
542.273193 -212.717804 199.702606 
541.896423 -212.008301 197.563904 
541.489319 -212.465805 195.199997 
542.473816 -220.427902 198.566193 
541.749207 -211.166794 195.444901 
542.728699 -213.106796 199.584198 
542.352783 -212.039307 197.495193 
541.973206 -211.083405 195.432205 
542.565979 -211.795197 197.510696 
542.195801 -211.083405 195.401596 
542.788330 -211.807999 197.478302 
542.408997 -210.883606 195.416397 
543.000488 -211.962097 197.422394 
542.626404 -212.846695 194.961899 
542.844604 -213.026505 194.893906 
543.073975 -212.929596 194.884003 
543.315430 -213.018906 194.831696 
543.557007 -213.068298 194.787994 
537.340393 -214.923294 216.468002 
537.579529 -214.789001 216.387100 
537.797729 -214.935196 216.338196 
538.061890 -214.402496 216.212799 
537.258972 -214.904999 214.060104 
535.057983 -213.929306 207.479599 
538.280396 -214.539093 216.163406 
537.442017 -215.527802 214.043900 
536.457703 -217.850006 211.930695 
535.390991 -212.967102 207.438004 
537.670410 -215.569305 213.981796 
537.120117 -212.739502 211.638596 
535.604492 -213.071106 207.374496 
538.064209 -213.164597 213.733704 
537.360779 -212.505005 211.566498 
535.828918 -213.074997 207.313507 
534.918091 -215.234604 205.021500 
538.283325 -213.225601 213.675400 
537.591125 -212.389206 211.500198 
536.078491 -212.821304 207.258408 
535.178711 -214.978607 204.973602 
534.421387 -214.850204 202.760406 
538.328613 -216.158707 213.830307 
537.799316 -212.563400 211.445801 
536.862488 -214.963699 209.345901 
536.306274 -212.775604 207.198700 
535.465088 -214.459396 204.941696 
537.822571 -215.440308 211.499802 
537.101501 -214.853394 209.281693 
535.705872 -214.352295 204.886398 
538.888306 -214.417801 213.573807 
538.054199 -215.434296 211.435501 
537.294678 -215.328293 209.221298 
536.674011 -213.667404 207.053207 
539.156616 -213.593201 213.451294 
538.438904 -212.949997 211.276199 
537.518616 -215.427704 209.158096 
536.876282 -213.948105 206.983795 
536.330078 -212.604904 204.870102 
535.449585 -213.897400 202.604294 
534.487610 -215.472504 200.200195 
539.390991 -213.369202 213.372803 
538.652405 -213.101303 211.220093 
537.758972 -215.300903 209.094101 
537.118286 -213.761795 206.927200 
536.462585 -213.591797 204.748703 
535.391113 -216.671997 202.277695 
534.741028 -215.304092 200.160202 
539.607727 -213.521103 213.321106 
538.868774 -213.215897 211.162399 
537.976196 -215.506393 209.031204 
537.260071 -214.846207 206.833496 
536.680176 -213.687607 204.681503 
535.132019 -213.888901 200.282898 
533.531982 -220.604797 196.950104 
539.824219 -213.696106 213.270599 
538.890930 -217.118301 211.238907 
538.294800 -214.124207 208.964096 
530.884705 -220.607697 189.350693 
537.453125 -215.340195 206.755600 
536.906494 -213.687195 204.620300 
536.287781 -212.287704 202.578903 
535.388000 -213.631500 200.256195 
534.576172 -213.996506 197.976501 
539.924927 -217.078903 213.436203 
539.118286 -217.304092 211.179703 
538.534729 -213.902603 208.901703 
532.796326 -210.018997 192.152298 
537.725403 -214.762695 206.710693 
537.250671 -212.235794 204.653900 
536.512573 -212.255005 202.522598 
535.604309 -213.736099 200.182404 
534.821472 -213.856094 197.939697 
540.157227 -217.183197 213.377701 
539.356323 -217.281296 211.113205 
538.754028 -214.017502 208.839600 
533.054382 -209.749695 192.170593 
537.913818 -215.368805 206.628296 
537.463013 -212.346695 204.586594 
536.471008 -215.202896 202.169800 
535.559021 -216.433807 199.762802 
535.065674 -213.716797 197.903107 
539.589783 -217.365494 211.050598 
538.988098 -213.863907 208.777405 
538.190125 -214.667694 206.588806 
537.614807 -213.282806 204.463806 
536.998108 -211.762802 202.453094 
535.733521 -217.070007 199.614502 
535.287292 -213.772598 197.833603 
534.391418 -214.738495 195.384903 
539.900085 -215.423203 210.923599 
539.185791 -214.428604 208.714493 
538.508484 -213.187393 206.577301 
537.836914 -213.314804 204.400696 
537.224426 -211.681793 202.402100 
536.221680 -214.419800 199.908707 
535.513489 -213.786499 197.770996 
535.133606 -210.403702 196.206299 
539.410828 -214.481201 208.651993 
538.728516 -213.246201 206.513901 
538.015930 -213.986893 204.293396 
537.410278 -212.099792 202.299896 
536.483582 -214.055206 199.896500 
535.508179 -216.059296 197.324402 
535.345886 -210.435898 196.142502 
534.148376 -213.888306 193.147903 
539.665100 -213.837601 208.591202 
538.931702 -213.623596 206.438904 
537.980286 -218.087097 203.944901 
537.623596 -212.193893 202.230499 
536.713379 -214.029297 199.838593 
535.440186 -219.122894 196.738007 
535.566528 -210.393204 196.093903 
534.785217 -210.570801 193.885101 
539.891113 -213.804504 208.529007 
539.140076 -213.944305 206.365005 
538.565613 -212.378006 204.283203 
537.775024 -213.154099 202.070404 
536.924072 -214.229599 199.749802 
536.164917 -214.101303 197.534698 
535.786987 -210.349899 196.045700 
535.083801 -209.887207 193.992798 
540.112610 -213.898407 208.466507 
539.361572 -214.028702 206.299500 
538.797791 -212.175507 204.237396 
537.984009 -213.367706 201.986893 
537.059875 -215.376907 199.528793 
536.482300 -213.128296 197.641403 
536.034485 -210.040604 196.052200 
535.304077 -209.836304 193.948700 
540.337830 -213.887604 208.404205 
539.607910 -213.559296 206.255905 
539.017883 -212.370697 204.159393 
538.024597 -216.371307 201.603302 
537.482483 -213.032196 199.789703 
536.727783 -213.014404 197.597305 
536.261597 -210.015305 195.996796 
535.542114 -209.715195 193.917999 
539.841187 -213.602295 206.188705 
538.213196 -217.123505 201.458801 
537.697815 -213.144897 199.712997 
536.741211 -215.496704 197.103195 
536.414185 -210.651596 195.806503 
535.708618 -210.145493 193.755997 
540.067383 -213.546402 206.129105 
538.676208 -213.223801 201.815002 
536.982910 -215.382996 197.060104 
536.623291 -210.725693 195.732605 
535.912476 -210.248596 193.673294 
540.245483 -214.941498 206.008408 
539.529480 -215.847900 203.714798 
538.904175 -213.142303 201.762405 
537.907898 -216.734604 199.079498 
537.226990 -215.229095 197.024506 
536.703186 -212.245605 195.353500 
536.137695 -210.149994 193.640106 
540.468384 -215.147598 205.936493 
539.765015 -215.764893 203.657104 
539.137390 -212.950699 201.722397 
538.152771 -216.594193 199.034897 
537.627502 -212.955200 197.364899 
536.922302 -212.271500 195.287994 
536.333496 -210.340393 193.535202 
539.996521 -215.772705 203.592407 
539.354614 -213.062103 201.648697 
537.857422 -212.862106 197.320496 
536.877991 -215.482697 194.544495 
536.534973 -210.483597 193.441605 
540.234192 -215.600204 203.542099 
538.411499 -220.401505 198.352402 
538.085388 -212.787903 197.272705 
537.105103 -215.550201 194.466705 
536.761292 -210.367096 193.412292 
540.333191 -220.130203 203.118500 
538.875122 -216.294205 198.884903 
536.963318 -210.514603 193.316895 
539.123596 -216.001999 198.863205 
537.362915 -218.416702 193.721207 
537.176880 -210.535599 193.252808 
540.843018 -219.398407 203.041199 
539.357788 -215.985703 198.801407 
538.748596 -212.866699 197.074799 
537.373413 -210.770493 193.134796 
541.072327 -220.203094 202.907501 
539.654297 -214.474304 198.962204 
538.973206 -212.834396 197.019302 
537.599304 -210.644897 193.106995 
541.430603 -212.975403 203.440308 
539.881409 -214.493698 198.895996 
539.194885 -212.850296 196.954697 
541.654114 -212.857697 203.388504 
540.924011 -212.643005 201.266495 
539.419617 -212.804504 196.901306 
538.440125 -216.568802 193.859207 
541.877686 -212.651596 203.344498 
541.148193 -212.487595 201.223297 
540.403809 -212.729507 199.033798 
539.636780 -212.922897 196.817200 
539.056519 -209.652100 195.318604 
541.376892 -212.658798 201.137695 
540.637390 -212.305801 199.036697 
539.278381 -209.650208 195.256195 
541.598694 -212.615005 201.081100 
540.864502 -212.027496 199.017899 
541.819214 -212.673599 201.012100 
541.095093 -211.499496 199.038406 
540.345825 -211.999893 196.800903 
542.041016 -212.596298 200.959503 
541.306519 -211.840103 198.924194 
540.549072 -212.558899 196.633194 
542.261780 -212.754501 200.878204 
541.525696 -211.806396 198.867905 
540.753906 -213.201294 196.447998 
542.483398 -212.744995 200.817001 
541.747192 -211.542801 198.848099 
540.999023 -212.238495 196.569504 
540.235291 -212.620407 194.285904 
541.965271 -211.473907 198.797501 
541.230103 -211.669800 196.617004 
540.466919 -212.297806 194.296097 
542.182007 -211.674896 198.703705 
541.452271 -211.412506 196.604706 
540.690186 -212.200500 194.255402 
542.399719 -213.267105 198.386002 
541.670288 -211.364502 196.552094 
540.933716 -211.227493 194.415695 
541.882385 -211.971207 196.371201 
541.167908 -210.378601 194.548904 
542.091492 -211.941803 196.318207 
541.358826 -211.135193 194.316101 
542.321228 -212.057404 196.228394 
541.584473 -211.246704 194.224106 
542.551025 -211.832703 196.205994 
541.810730 -211.382401 194.125595 
542.771301 -212.043396 196.100906 
542.024780 -211.930801 193.933899 
542.997314 -212.731506 195.899002 
542.243591 -212.193893 193.807999 
542.464172 -212.284897 193.722305 
537.494629 -215.056503 216.353607 
537.720886 -215.061996 216.261002 
537.936584 -215.065506 216.172897 
536.973022 -215.126205 214.037903 
538.154724 -214.852707 216.065704 
537.175476 -215.281998 213.963104 
538.427917 -213.806396 215.863205 
537.366272 -215.620193 213.901993 
538.636414 -213.858795 215.781693 
538.850586 -213.801102 215.688293 
537.761780 -216.161499 213.766296 
539.053528 -214.196701 215.637695 
538.021484 -215.446594 213.625305 
538.227173 -215.592804 213.547806 
538.400330 -216.352005 213.512802 
538.624512 -216.198105 213.412598 
539.921082 -213.561203 215.221603 
538.879822 -215.371597 213.267303 
540.088989 -214.945099 215.269897 
539.193787 -213.324600 213.038101 
539.406677 -213.161499 212.941498 
539.611694 -213.438995 212.868698 
539.697510 -216.909103 212.998199 
539.905090 -216.875305 212.909805 
540.104187 -217.496002 212.855392 
540.321472 -217.551102 212.766403 
544.462708 -213.168793 193.681107 
544.290527 -213.308105 193.787399 
544.053894 -212.553696 194.087997 
543.877014 -212.601395 194.213104 
543.691528 -212.519608 194.365906 
543.483521 -212.219894 194.570206 
543.284790 -212.036301 194.749207 
543.113220 -212.305405 194.834000 
542.958801 -212.396698 194.937393 
542.689697 -210.638397 195.426407 
542.528687 -210.883698 195.508301 
543.846619 -212.875305 197.043304 
541.199280 -211.989594 193.493393 
542.370422 -211.210693 195.574997 
543.581482 -211.538498 197.399796 
541.022522 -212.015503 193.623306 
542.199707 -211.290298 195.691406 
543.413391 -211.629395 197.515106 
540.855225 -212.483704 193.654495 
542.123901 -213.708206 195.356995 
543.243530 -211.696106 197.634796 
540.827820 -220.630402 191.987701 
541.842224 -210.796204 196.043701 
543.082214 -211.914001 197.730606 
540.636719 -220.578598 192.146301 
541.710083 -211.675400 196.002304 
542.931213 -212.171204 197.814804 
541.536926 -211.713196 196.128098 
542.767395 -212.382095 197.913300 
541.358093 -211.875504 196.237106 
542.591797 -212.556305 198.024704 
539.943787 -209.513107 194.969894 
541.218018 -213.516205 196.077103 
542.348694 -211.081207 198.381699 
539.774902 -209.544403 195.093399 
541.013123 -212.430893 196.409103 
542.178589 -211.103897 198.507599 
538.398926 -210.807205 193.064896 
539.606079 -209.602493 195.211197 
540.834290 -211.846603 196.641296 
542.021118 -211.432297 198.588196 
543.294495 -212.726303 200.288895 
538.235107 -210.778900 193.200104 
541.893799 -212.360306 198.576706 
538.069824 -210.831604 193.316101 
541.695618 -211.412796 198.839005 
537.900208 -210.692001 193.483200 
539.063782 -218.133102 193.864502 
540.336670 -212.943207 196.845200 
541.541687 -211.943497 198.893600 
542.788513 -212.834305 200.662994 
537.720886 -210.929596 193.562897 
540.160522 -212.967804 196.976105 
541.377930 -212.226303 198.985199 
542.611084 -212.754105 200.802795 
537.546570 -210.965805 193.689407 
539.984192 -212.962006 197.112198 
541.211975 -212.486893 199.080902 
542.435913 -212.708893 200.938507 
537.224182 -215.307999 192.841599 
538.403198 -223.935699 193.173492 
539.808716 -213.042404 197.234100 
537.035583 -215.406906 192.963806 
538.306580 -217.558594 194.568695 
539.632874 -213.195099 197.344406 
541.021179 -219.725006 198.377396 
542.054993 -211.833206 201.291397 
537.055115 -210.284103 194.244995 
538.124084 -217.205597 194.783401 
539.456421 -213.248398 197.471298 
540.853882 -221.076508 198.347000 
541.921509 -212.791504 201.322693 
536.888306 -210.190399 194.398697 
537.970398 -215.684402 195.217407 
539.281006 -212.953400 197.654007 
536.718384 -210.185699 194.532700 
537.791382 -215.478195 195.398697 
539.106628 -212.831299 197.808395 
541.562195 -212.336395 201.629593 
535.269287 -210.795197 192.639893 
536.544189 -210.272095 194.646896 
537.609680 -215.424500 195.551102 
538.930786 -212.957397 197.923706 
541.414307 -213.098495 201.686905 
535.127502 -210.488800 192.844299 
536.378906 -210.177994 194.800003 
537.452820 -214.591202 195.845901 
538.763428 -213.109695 198.029205 
542.476990 -213.018402 203.696899 
534.963684 -210.382202 193.005493 
536.192810 -210.481903 194.868607 
537.350586 -212.557999 196.347397 
541.142029 -215.660507 201.709595 
534.781677 -210.518997 193.107697 
536.068604 -209.826599 195.132797 
537.173523 -212.619095 196.472504 
538.424377 -212.460800 198.396805 
540.968384 -215.910095 201.824600 
542.124817 -212.750504 203.973602 
535.893921 -209.931702 195.242996 
536.996521 -212.677597 196.598495 
538.252319 -212.411896 198.537994 
540.744995 -213.641296 202.161407 
541.946777 -212.535599 204.115906 
535.616821 -211.678894 195.017502 
538.078918 -212.437500 198.668304 
540.571228 -213.604202 202.297897 
535.441528 -211.710693 195.147095 
536.742920 -210.535904 197.239899 
537.903381 -212.555405 198.785706 
539.105713 -221.052902 199.695999 
540.398193 -213.612106 202.430496 
541.871582 -220.412598 203.947296 
536.570923 -210.603500 197.360001 
537.649780 -215.452301 198.513702 
538.979614 -212.684006 200.774094 
540.226013 -213.669205 202.559204 
541.676086 -220.218903 204.103104 
536.397522 -210.695999 197.476395 
537.500610 -214.420898 198.796600 
540.054871 -213.875107 202.676498 
541.489014 -220.279800 204.245407 
531.124329 -222.438995 188.941605 
536.240906 -210.462799 197.647095 
537.276672 -216.101196 198.699905 
538.507019 -222.226395 200.022598 
539.881714 -213.900894 202.808502 
535.909729 -213.548904 197.266998 
537.118896 -215.420700 198.932999 
538.474670 -212.636703 201.172104 
539.717712 -213.927505 202.934296 
541.047913 -217.055405 204.679092 
535.728577 -213.628204 197.392502 
538.304077 -212.601807 201.308701 
539.544373 -213.804199 203.077606 
540.867004 -217.009796 204.820297 
535.546326 -213.720505 197.516006 
536.825623 -213.794907 199.424896 
538.125427 -212.540604 201.453995 
539.362427 -213.912094 203.210403 
540.693726 -217.374893 204.944107 
535.349915 -213.877502 197.636307 
536.623901 -214.391693 199.485901 
537.951111 -212.687302 201.572601 
539.182495 -217.434204 203.095001 
540.513672 -217.399704 205.083298 
534.947021 -217.407303 197.220901 
536.495117 -213.556396 199.722794 
537.790588 -212.637894 201.704605 
540.290222 -213.170807 205.378006 
534.534302 -220.817001 196.838501 
536.317078 -213.620499 199.851501 
537.629211 -212.621597 201.833099 
538.866089 -213.536896 203.625702 
540.120117 -213.069702 205.513199 
534.347107 -220.694305 197.010696 
536.138306 -213.699905 199.978806 
537.443726 -213.084702 201.923706 
538.695679 -213.441895 203.765503 
539.951782 -213.149796 205.641998 
535.966370 -213.643600 200.122604 
537.163696 -216.204803 201.777298 
538.525818 -213.350204 203.904800 
539.783325 -213.181305 205.772995 
535.763123 -214.141907 200.201096 
537.025330 -215.092102 202.016098 
538.355286 -213.329498 204.039597 
539.614929 -213.413895 205.897995 
535.506409 -215.488403 200.184494 
536.957581 -212.365601 202.388794 
538.187073 -213.218307 204.179703 
539.445618 -213.332001 206.032806 
535.332214 -215.402206 200.335205 
536.645813 -215.691299 202.243301 
538.037170 -212.331802 204.361694 
539.277222 -213.189407 206.169098 
535.132874 -215.708099 200.442093 
536.462830 -215.794693 202.375107 
537.871277 -212.257004 204.497406 
539.109009 -213.132004 206.302795 
534.930420 -216.039001 200.547699 
536.296326 -215.542892 202.535507 
537.699829 -212.399200 204.621994 
538.939880 -213.217804 206.433197 
536.197510 -213.987793 202.795807 
537.491882 -213.690704 204.691605 
538.755127 -214.684692 206.537399 
536.016907 -214.120804 202.922699 
537.317383 -213.789597 204.822006 
538.583679 -214.631195 206.674103 
535.841980 -214.139496 203.058395 
537.189209 -212.599792 205.009796 
538.421204 -214.606995 206.804001 
537.024292 -212.747192 205.130295 
538.250000 -214.578003 206.940201 
535.467529 -214.724503 203.286194 
536.858398 -212.686203 205.266006 
538.078186 -214.592407 207.076202 
535.285706 -214.828705 203.417999 
536.696777 -212.534607 205.404999 
535.106323 -214.886307 203.553299 
536.524780 -212.627899 205.534897 
536.253418 -214.722900 205.597397 
537.532104 -215.670502 207.479706 
536.204712 -212.325195 205.811295 
537.355408 -215.745804 207.618301 
536.030273 -212.462204 205.940308 
535.810120 -213.382996 206.048401 
537.085388 -213.639694 207.894104 
536.779785 -212.898300 208.160507 
536.609802 -212.970200 208.294800 
536.390381 -214.076202 208.439697 
536.197876 -214.529999 208.581604 
544.300720 -212.639801 194.231598 
544.116272 -212.711594 194.326202 
543.922974 -212.536896 194.467102 
543.739624 -212.618896 194.559097 
543.534912 -212.543594 194.688400 
543.322021 -212.188004 194.868896 
543.142029 -212.156494 194.977798 
542.968872 -212.395996 195.037201 
542.667480 -210.613007 195.502197 
543.742798 -212.851105 197.132507 
542.486328 -210.824402 195.569397 
543.427490 -211.203201 197.513702 
542.304871 -211.050903 195.634201 
543.240784 -211.335800 197.600906 
541.244080 -211.943100 193.493393 
542.146423 -211.174698 195.705002 
543.082214 -211.610901 197.655899 
541.059692 -211.987305 193.589600 
542.029297 -212.644897 195.527893 
542.916016 -211.947998 197.706696 
540.879883 -212.194702 193.649506 
541.841370 -212.664703 195.630402 
542.742126 -212.186005 197.773697 
540.711914 -212.529205 193.676804 
541.653625 -212.431198 195.775696 
540.713379 -220.578094 192.013504 
541.442200 -211.532593 196.043594 
542.389099 -212.247192 197.963806 
540.504211 -220.662094 192.114899 
541.258911 -211.587204 196.137207 
542.149597 -211.197800 198.227402 
543.131897 -212.558502 200.066406 
541.079590 -211.778793 196.205505 
541.971680 -211.353897 198.306198 
542.939880 -212.522903 200.174698 
539.935608 -209.693207 194.702805 
540.909485 -212.325806 196.210007 
541.790527 -211.452103 198.393799 
539.755676 -209.571106 194.829102 
540.705872 -211.683899 196.429504 
541.681091 -213.362793 198.215195 
542.556824 -212.459198 200.388901 
539.577087 -209.485504 194.947205 
541.686401 -218.693695 197.545197 
542.377991 -212.663300 200.469101 
541.258179 -212.172104 198.596207 
542.192383 -212.755707 200.561996 
541.068481 -212.099594 198.709305 
541.966797 -211.975494 200.750793 
542.926025 -212.850998 202.690796 
539.033203 -216.628403 193.774094 
540.884216 -212.208405 198.796295 
541.822083 -212.998001 200.741898 
542.729309 -212.756607 202.800705 
537.950623 -210.601593 193.073196 
541.757202 -216.196304 200.504501 
542.534607 -212.689194 202.908096 
537.770874 -210.583893 193.178299 
538.639404 -216.066605 194.108505 
540.591614 -215.977905 198.483398 
541.565430 -216.433899 200.587708 
540.393127 -215.982605 198.590897 
538.205383 -219.062698 193.728897 
540.195374 -216.054001 198.689102 
541.940918 -212.201401 203.248001 
537.233215 -210.501007 193.498093 
539.027893 -219.432007 196.068893 
539.995605 -215.995697 198.804398 
541.039124 -219.239502 200.631607 
542.089294 -220.282898 202.799500 
537.046875 -210.688797 193.554398 
537.856689 -215.748093 194.605194 
538.849121 -212.799805 197.265106 
539.796875 -215.988297 198.912903 
541.872009 -220.183502 202.919693 
536.900330 -209.769104 193.863495 
537.666382 -215.491806 194.762604 
538.660706 -212.793396 197.368393 
539.599670 -216.208099 198.991501 
541.624573 -219.221603 203.095306 
536.717712 -209.889206 193.934006 
537.549683 -212.344696 195.476196 
538.470886 -212.950104 197.445496 
539.400513 -216.276398 199.089996 
541.449890 -220.305298 203.138397 
536.510620 -210.570099 193.878906 
537.364075 -212.323502 195.581604 
538.281128 -213.015305 197.537094 
540.110779 -213.311707 201.634506 
541.233398 -220.193497 203.258606 
536.350525 -210.131195 194.075195 
537.233521 -210.533997 196.022202 
538.047913 -215.723099 197.214294 
539.915894 -213.041107 201.761398 
540.912598 -216.159195 203.613495 
536.179504 -209.968399 194.208801 
537.055176 -210.457901 196.134399 
537.853821 -215.578003 197.343002 
539.724976 -212.998703 201.866699 
540.704712 -215.863205 203.737000 
536.002625 -209.941498 194.311905 
536.883423 -210.216095 196.277100 
537.723999 -212.566299 197.911301 
538.604187 -216.030106 199.547195 
539.536194 -213.298203 201.941193 
540.512695 -216.241196 203.821304 
535.818420 -210.046402 194.385605 
536.695374 -210.413605 196.337494 
537.520203 -213.201706 197.915207 
538.406921 -215.901993 199.668594 
540.309692 -216.135300 203.933105 
535.559387 -211.440796 194.180298 
536.515686 -210.396393 196.437805 
537.330688 -213.196106 198.017303 
538.210510 -215.745300 199.792496 
539.153503 -213.516693 202.125305 
540.108582 -216.116501 204.039795 
535.357727 -211.751495 194.212006 
536.343872 -210.203400 196.569595 
536.995605 -217.871994 197.422302 
538.073730 -212.101807 200.321503 
538.956604 -215.314896 202.075500 
539.865601 -212.501999 204.333496 
540.812622 -214.751007 206.308594 
536.147278 -210.542496 196.604706 
536.939087 -213.558395 198.166000 
537.883423 -212.262894 200.402206 
538.774170 -212.596207 202.404007 
539.675781 -212.487198 204.434097 
540.614319 -214.709900 206.412598 
536.678223 -215.447296 197.992004 
537.647583 -214.828903 200.206207 
538.595215 -212.542999 202.503403 
539.486389 -212.575607 204.529297 
540.427307 -214.691803 206.511505 
536.483215 -215.409302 198.101395 
537.452209 -214.827896 200.309296 
538.407715 -212.395706 202.614594 
539.296082 -212.519394 204.631393 
540.219421 -214.673492 206.619293 
535.361023 -214.757904 196.154404 
536.341125 -213.912903 198.423294 
537.088318 -220.326904 199.811493 
538.208679 -212.403397 202.717606 
539.096191 -212.566605 204.733200 
540.011475 -214.654404 206.727097 
535.156982 -214.756607 196.261795 
536.157898 -213.720901 198.551498 
537.109985 -212.653900 200.759903 
538.016907 -212.559692 202.804504 
538.905579 -212.686707 204.827194 
539.814575 -214.660202 206.829803 
534.982117 -214.624496 196.382294 
536.001892 -213.203506 198.719696 
536.802917 -216.343002 200.459900 
537.844421 -212.224594 202.924194 
538.726379 -212.492203 204.930206 
539.627502 -214.625198 206.927994 
534.607178 -217.513199 195.986099 
535.832825 -212.998001 198.843201 
536.721619 -213.456894 200.864105 
537.654724 -212.277695 203.018600 
538.535217 -212.628906 205.023605 
539.440796 -214.619507 207.025803 
535.599304 -213.615097 198.862701 
536.511597 -213.666901 200.946899 
537.465515 -212.294205 203.115601 
538.325195 -214.213593 205.059998 
539.229126 -212.067200 207.151703 
540.969177 -213.851501 211.305206 
535.354370 -214.540100 198.837906 
536.301697 -214.070694 201.005707 
537.270203 -212.176407 203.226395 
538.130676 -214.161102 205.163300 
539.039612 -212.182098 207.249405 
540.779907 -213.711395 211.394104 
536.117493 -214.088303 201.099899 
537.079102 -212.566406 203.293198 
540.580383 -213.542603 211.485107 
534.721313 -218.545105 198.507904 
535.925415 -214.057404 201.203293 
536.883789 -212.722397 203.380997 
538.646484 -215.409500 207.432205 
540.383728 -213.472794 211.581696 
535.632507 -215.953903 201.118500 
536.586121 -215.520004 203.296494 
537.546997 -214.514496 205.449997 
538.446106 -215.494202 207.535400 
540.181885 -213.055099 211.656204 
541.132996 -214.927994 213.888000 
535.428772 -216.030899 201.214005 
536.444519 -214.142807 203.487106 
537.407410 -212.428696 205.617493 
538.247314 -215.397995 207.638504 
540.000427 -213.965805 211.815399 
540.931580 -214.884201 213.987198 
536.253296 -214.065201 203.592102 
537.218079 -212.406494 205.716202 
538.048218 -215.359100 207.741302 
538.966614 -215.703705 209.866699 
539.801880 -213.794006 211.905502 
540.737488 -215.118195 214.113907 
534.467407 -225.176697 200.569199 
536.044373 -214.367706 203.673798 
537.023987 -212.521393 205.810699 
538.764526 -215.835403 209.975098 
540.545715 -215.540405 214.259995 
534.267273 -224.755997 200.724197 
535.814514 -215.052307 203.733795 
536.824280 -212.773407 205.901703 
537.680176 -213.959396 207.939896 
538.565918 -215.458694 210.065002 
540.341003 -215.398895 214.350006 
534.056702 -224.525208 200.860794 
535.626099 -214.878693 203.845001 
536.588623 -213.899704 205.971100 
537.439087 -215.749695 208.052002 
538.400208 -212.419403 210.050995 
539.216309 -215.947601 212.362503 
540.137573 -215.282394 214.442200 
535.424072 -214.961502 203.941193 
538.205627 -212.625000 210.157700 
539.935486 -215.234802 214.541199 
536.259399 -212.561996 206.200699 
538.009888 -212.817795 210.264404 
539.734985 -215.329605 214.655197 
536.045776 -213.026703 206.288498 
536.915283 -213.438904 208.335297 
537.817688 -212.788101 210.362198 
538.610901 -215.500397 212.641907 
539.522705 -213.638107 214.576096 
536.728882 -213.225006 208.431900 
537.621582 -212.917496 210.466797 
538.409973 -215.406998 212.738297 
539.333496 -215.958099 214.932602 
536.535095 -213.222305 208.530701 
537.428101 -212.918304 210.565796 
538.208130 -215.428497 212.843506 
539.129578 -215.072495 214.938904 
536.290405 -214.391602 208.648193 
537.235474 -212.886398 210.663193 
538.027893 -214.161606 212.844894 
538.928101 -215.172195 215.053802 
536.085327 -214.552902 208.751495 
536.965393 -215.227600 210.878098 
537.830078 -214.153900 212.945801 
538.727905 -214.957108 215.133102 
537.645874 -213.551697 212.996704 
538.524719 -215.194199 215.264099 
536.581421 -214.772095 211.059006 
537.459717 -213.168106 213.064606 
538.322998 -215.180298 215.366394 
536.385498 -214.686996 211.156204 
537.233826 -214.217896 213.255798 
538.125488 -214.887604 215.435303 
536.182922 -214.756699 211.261505 
537.028992 -214.410294 213.374405 
537.927307 -214.737106 215.520706 
535.979980 -214.819702 211.366699 
537.714417 -215.304504 215.693405 
537.521179 -214.918396 215.749496 
537.312988 -215.162506 215.883896 
537.112000 -215.116196 215.981903 
536.907288 -215.180099 216.094101 
540.934082 -215.692703 211.358704 
540.719604 -215.652405 211.375702 
540.505188 -215.593399 211.391403 
540.269470 -214.116501 211.319794 
540.106384 -216.399307 211.477295 
540.156128 -213.435898 213.534103 
539.896179 -216.701599 211.514404 
539.945007 -213.311096 213.539703 
539.632874 -213.182907 211.315994 
539.740601 -213.567795 213.582108 
539.427307 -213.132507 211.329895 
539.537415 -214.090607 213.649994 
539.645630 -213.836304 215.891998 
539.222473 -213.129303 211.346497 
539.330322 -214.564896 213.713303 
539.432983 -213.872299 215.914093 
539.016479 -212.871994 211.346893 
539.118774 -214.763901 213.749603 
539.219971 -213.899796 215.934692 
538.822998 -212.805695 211.358398 
538.917114 -214.914505 213.780701 
539.019287 -214.350906 216.010895 
538.714294 -215.088303 213.813705 
538.815918 -214.678406 216.070694 
538.411011 -215.405899 211.553497 
538.505615 -213.828400 213.706207 
538.599487 -214.838699 216.108597 
538.218323 -213.212006 211.430405 
538.381409 -215.085495 216.157898 
538.013000 -213.209000 211.445297 
538.164124 -215.097702 216.175705 
537.823120 -212.906296 211.440399 
537.860107 -215.661499 213.933807 
537.609924 -213.380997 211.485397 
537.650391 -215.278702 213.911194 
537.744873 -214.815094 216.168594 
537.410095 -213.096802 211.481400 
537.444275 -214.845505 213.883301 
537.157898 -214.982803 211.617096 
537.221313 -215.231506 213.936493 
536.947876 -214.944504 211.628799 
537.090393 -214.990402 216.237595 
536.739990 -214.837799 211.635696 
536.872681 -215.002502 216.253799 
536.529175 -214.834106 211.649002 
538.930298 -214.577103 216.074402 
538.739319 -214.710403 216.023605 
538.548096 -215.243500 216.026505 
538.344727 -215.205704 215.947495 
538.152771 -214.988403 215.848206 
537.952026 -214.770905 215.745407 
541.454407 -214.852707 214.186493 
541.277405 -214.842896 214.063507 
541.134399 -215.375595 214.005203 
539.802429 -214.401306 215.758698 
539.625793 -214.001007 215.587204 
539.455872 -214.274704 215.500702 
539.280884 -214.317902 215.382797 
537.987488 -214.680206 217.309402 
540.395813 -214.220901 213.401794 
539.102905 -214.158096 215.238297 
540.200806 -213.255096 213.191101 
540.047119 -213.226501 213.080704 
538.789612 -215.198807 215.140793 
539.877991 -213.266693 212.964493 
538.621277 -215.210999 215.022797 
539.723572 -213.544403 212.876404 
538.444580 -215.350403 214.913696 
539.551575 -213.886795 212.780502 
538.267212 -215.286697 214.779602 
539.374695 -213.582504 212.631607 
538.081299 -215.147507 214.630203 
539.273804 -217.332794 212.844894 
537.914490 -215.033798 214.496994 
539.073608 -215.158203 212.536407 
537.747375 -215.068604 214.381104 
537.580811 -215.062897 214.260406 
538.725891 -214.086197 212.205399 
538.544006 -212.071899 211.921295 
538.378479 -211.930603 211.791000 
538.214111 -212.179504 211.690903 
537.898010 -212.902100 211.515793 
536.570801 -214.535904 213.464294 
537.722595 -215.311493 211.570801 
536.396179 -214.593796 213.343506 
537.547485 -215.554398 211.461105 
537.385803 -215.353302 211.327194 
537.042603 -215.265106 211.067795 
536.914124 -213.142303 210.811295 
536.763123 -212.856598 210.677597 
536.597717 -213.201096 210.580795 
536.434570 -213.411301 210.475204 
536.260010 -213.684799 210.365707 
539.251526 -213.889404 215.666504 
539.148499 -215.162094 215.680496 
539.017578 -215.497101 215.552200 
538.880127 -215.029495 215.324600 
538.747375 -215.268097 215.182404 
538.620911 -215.520798 215.049500 
538.492310 -215.614304 214.895401 
538.365173 -215.933502 214.768295 
538.229797 -216.154007 214.618896 
538.101624 -216.710602 214.516495 
537.835205 -215.060898 213.985107 
537.701416 -215.171204 213.823502 
537.575623 -214.961700 213.635895 
537.446594 -214.430099 213.407196 
537.321777 -214.417999 213.242493 
537.197021 -214.413193 213.078598 
537.072327 -214.427704 212.916595 
535.918823 -214.790604 211.423904 
535.790710 -214.950104 211.269608 
532.758606 -221.081894 189.830093 
532.837097 -220.519302 189.713806 
535.495789 -213.561295 207.118195 
536.342712 -214.859604 204.267700 
536.411621 -214.434006 204.082306 
536.476807 -214.293503 203.888596 
536.541077 -214.216293 203.692993 
536.593079 -215.494995 203.435806 
536.727600 -215.843094 202.991501 
536.794495 -215.712906 202.794907 
536.866272 -214.567795 202.658905 
536.940308 -212.364502 202.595703 
537.055725 -220.388702 201.650696 
537.133301 -212.996704 201.962296 
537.200806 -212.906204 201.764297 
537.268494 -212.834900 201.565399 
537.332397 -212.416901 201.405106 
537.393921 -212.354004 201.227203 
537.459229 -212.453003 201.025604 
537.592285 -212.333206 200.640503 
537.680603 -214.797699 200.197006 
537.757812 -215.393402 199.925705 
537.827087 -215.368393 199.725494 
537.900574 -215.417099 199.507004 
537.940796 -213.025208 199.568604 
538.005676 -212.818100 199.396606 
538.064880 -212.240997 199.269302 
538.135925 -212.275894 199.061996 
538.205017 -212.175095 198.871201 
538.277771 -212.445908 198.643707 
538.342773 -212.441406 198.460007 
538.414185 -212.267807 198.269104 
538.483826 -212.160202 198.080200 
536.547729 -210.654907 197.429398 
536.619080 -210.542801 197.245804 
538.714600 -212.834106 197.380493 
536.690125 -210.473404 197.056000 
538.785400 -212.719406 197.191696 
536.760498 -210.509995 196.849396 
538.855286 -212.574493 197.008102 
536.828796 -210.423004 196.672607 
538.924500 -212.523407 196.820602 
536.900208 -210.351501 196.483902 
538.999878 -212.556900 196.609802 
536.968689 -210.241592 196.311707 
539.214111 -217.144699 195.664597 
537.039001 -210.700806 196.030899 
539.272705 -216.468002 195.556000 
537.107971 -210.752899 195.829300 
539.368530 -217.040604 195.250000 
539.473694 -217.731903 194.908798 
535.233521 -211.726395 194.544601 
539.552612 -217.740494 194.694199 
535.302307 -211.781006 194.334793 
537.391907 -210.317307 195.121201 
535.378784 -211.707596 194.140503 
537.465698 -210.452301 194.893097 
535.460327 -211.343704 194.016602 
537.539185 -210.980606 194.595703 
535.527283 -211.603607 193.753693 
540.037781 -221.646301 193.076706 
537.612671 -210.831207 194.421402 
535.623230 -210.669800 193.754105 
539.617126 -209.575897 195.171097 
537.683716 -210.794907 194.234604 
535.710693 -210.129196 193.665298 
539.685791 -209.530197 194.992401 
537.757507 -210.679596 194.054504 
535.785522 -209.934204 193.513596 
539.760071 -209.607300 194.789200 
537.829407 -210.692795 193.857605 
535.858582 -209.805099 193.348206 
533.214600 -221.711700 189.824493 
531.839722 -210.464096 191.753204 
539.827271 -209.519104 194.618805 
537.903625 -210.877396 193.623505 
535.928223 -209.835297 193.147293 
533.319092 -221.340698 189.676407 
539.906006 -209.602402 194.403900 
537.974976 -210.795197 193.446198 
539.984985 -209.749496 194.184494 
538.051880 -210.852905 193.228302 
540.055115 -209.706100 194.004395 
540.125000 -209.654404 193.826202 
537.463379 -215.074005 215.856003 
537.555420 -215.236603 215.685699 
537.822021 -214.395294 214.974701 
539.882996 -213.910706 215.661407 
537.914612 -214.570908 214.807297 
539.993591 -214.381104 215.542801 
538.013489 -215.102600 214.686707 
